<<<<<<< Updated upstream
-768.000000 576.000000 448.000000
-768.436436 574.254257 448.872872
-768.872872 572.508514 449.745743
-769.309307 570.762771 450.618615
-769.745743 569.017028 451.491486
-770.182179 567.271284 452.364358
-770.618615 565.525541 453.237229
-771.055050 563.779798 454.110101
-771.491486 562.034055 454.982972
-771.927922 560.288312 455.855844
-772.364358 558.542569 456.728716
-772.800794 556.796826 457.601587
-773.237229 555.051083 458.474459
-773.673665 553.305339 459.347330
-774.110101 551.559596 460.220202
-774.546537 549.813853 461.093073
-774.982972 548.068110 461.965945
-775.419408 546.322367 462.838817
-776.000000 544.000000 464.000000
-776.000000 544.374224 465.964677
-776.000000 544.748448 467.929354
-776.000000 545.122673 469.894031
-776.000000 545.496897 471.858709
-776.000000 545.871121 473.823386
-776.000000 546.245345 475.788063
-776.000000 546.619570 477.752740
-776.000000 546.993794 479.717417
-776.000000 547.368018 481.682094
-776.000000 547.742242 483.646771
-776.000000 548.116466 485.611448
-776.000000 548.490691 487.576126
-776.000000 548.864915 489.540803
-776.000000 549.239139 491.505480
-776.000000 549.613363 493.470157
-776.000000 549.987587 495.434834
-776.000000 550.361812 497.399511
-776.000000 550.736036 499.364188
-776.000000 551.110260 501.328866
-776.000000 551.484484 503.293543
-776.000000 551.858709 505.258220
-776.000000 552.232933 507.222897
-776.000000 552.607157 509.187574
-776.000000 552.981381 511.152251
-776.000000 553.355605 513.116928
-776.000000 553.729830 515.081605
-776.000000 554.104054 517.046283
-776.000000 554.478278 519.010960
-776.000000 554.852502 520.975637
-776.000000 555.226726 522.940314
-776.000000 555.600951 524.904991
-776.000000 555.975175 526.869668
-776.000000 556.349399 528.834345
-776.000000 556.723623 530.799023
-776.000000 557.097848 532.763700
-776.000000 557.472072 534.728377
-776.000000 557.846296 536.693054
-776.000000 558.220520 538.657731
-776.000000 558.594744 540.622408
-776.000000 558.968969 542.587085
-776.000000 559.343193 544.551762
-776.000000 559.717417 546.516440
-776.000000 560.091641 548.481117
-776.000000 560.465865 550.445794
-776.000000 560.840090 552.410471
-776.000000 561.214314 554.375148
-776.000000 561.588538 556.339825
-776.000000 561.962762 558.304502
-776.000000 562.336987 560.269180
-776.000000 562.711211 562.233857
-776.000000 563.085435 564.198534
-776.000000 563.459659 566.163211
-776.000000 563.833883 568.127888
-776.000000 564.208108 570.092565
-776.000000 564.582332 572.057242
-776.000000 564.956556 574.021919
-776.000000 565.330780 575.986597
-776.000000 565.705005 577.951274
-776.000000 566.079229 579.915951
-776.000000 566.453453 581.880628
-776.000000 566.827677 583.845305
-776.000000 567.201901 585.809982
-776.000000 567.576126 587.774659
-776.000000 567.950350 589.739337
-776.000000 568.324574 591.704014
-776.000000 568.698798 593.668691
-776.000000 569.073022 595.633368
-776.000000 569.447247 597.598045
-776.000000 569.821471 599.562722
-776.000000 570.195695 601.527399
-776.000000 570.569919 603.492076
-776.000000 570.944144 605.456754
-776.000000 571.318368 607.421431
-776.000000 571.692592 609.386108
-776.000000 572.066816 611.350785
-776.000000 572.441040 613.315462
-776.000000 572.815265 615.280139
-776.000000 573.189489 617.244816
-776.000000 573.563713 619.209493
-776.000000 573.937937 621.174171
-776.000000 574.312161 623.138848
-776.000000 574.686386 625.103525
-776.000000 575.060610 627.068202
-776.000000 575.434834 629.032879
-776.000000 576.000000 632.000000
-776.000000 577.832315 632.801638
-776.000000 579.664629 633.603275
-776.000000 581.496944 634.404913
-776.000000 583.329259 635.206551
-776.000000 585.161573 636.008188
-776.000000 586.993888 636.809826
-776.000000 588.826203 637.611464
-776.000000 590.658517 638.413101
-776.000000 592.490832 639.214739
-776.000000 594.323147 640.016377
-776.000000 596.155461 640.818014
-776.000000 597.987776 641.619652
-776.000000 599.820091 642.421290
-776.000000 601.652405 643.222927
-776.000000 603.484720 644.024565
-776.000000 605.317035 644.826203
-776.000000 607.149349 645.627840
-776.000000 608.981664 646.429478
-776.000000 610.813979 647.231116
-776.000000 612.646293 648.032753
-776.000000 614.478608 648.834391
-776.000000 616.310923 649.636029
-776.000000 618.143237 650.437666
-776.000000 619.975552 651.239304
-776.000000 621.807867 652.040942
-776.000000 623.640181 652.842579
-776.000000 625.472496 653.644217
-776.000000 627.304811 654.445855
-776.000000 629.137125 655.247492
-776.000000 630.969440 656.049130
-776.000000 632.801755 656.850768
-776.000000 634.634069 657.652405
-776.000000 636.466384 658.454043
-776.000000 640.000000 660.000000
-777.987767 640.220863 660.000000
-779.975535 640.441726 660.000000
-781.963302 640.662589 660.000000
-783.951070 640.883452 660.000000
-785.938837 641.104315 660.000000
-787.926605 641.325178 660.000000
-789.914372 641.546041 660.000000
-791.902140 641.766904 660.000000
-793.889907 641.987767 660.000000
-795.877675 642.208631 660.000000
-797.865442 642.429494 660.000000
-799.853210 642.650357 660.000000
-801.840977 642.871220 660.000000
-803.828745 643.092083 660.000000
-805.816512 643.312946 660.000000
-807.804280 643.533809 660.000000
-809.792047 643.754672 660.000000
-811.779814 643.975535 660.000000
-813.767582 644.196398 660.000000
-815.755349 644.417261 660.000000
-817.743117 644.638124 660.000000
-819.730884 644.858987 660.000000
-821.718652 645.079850 660.000000
-823.706419 645.300713 660.000000
-825.694187 645.521576 660.000000
-827.681954 645.742439 660.000000
-829.669722 645.963302 660.000000
-831.657489 646.184165 660.000000
-833.645257 646.405029 660.000000
-835.633024 646.625892 660.000000
-837.620792 646.846755 660.000000
-839.608559 647.067618 660.000000
-841.596326 647.288481 660.000000
-843.584094 647.509344 660.000000
-845.571861 647.730207 660.000000
-848.000000 648.000000 660.000000
-848.810255 647.040488 658.443458
-849.620510 646.080975 656.886916
-850.430764 645.121463 655.330374
-851.241019 644.161951 653.773832
-852.051274 643.202439 652.217289
-852.861529 642.242926 650.660747
-853.671784 641.283414 649.104205
-854.482038 640.323902 647.547663
-855.292293 639.364390 645.991121
-856.102548 638.404877 644.434579
-856.912803 637.445365 642.878037
-857.723058 636.485853 641.321495
-858.533312 635.526341 639.764952
-859.343567 634.566828 638.208410
-860.153822 633.607316 636.651868
-860.964077 632.647804 635.095326
-861.774332 631.688291 633.538784
-862.584586 630.728779 631.982242
-863.394841 629.769267 630.425700
-864.205096 628.809755 628.869158
-865.015351 627.850242 627.312615
-865.825606 626.890730 625.756073
-866.635860 625.931218 624.199531
-867.446115 624.971706 622.642989
-868.256370 624.012193 621.086447
-869.066625 623.052681 619.529905
-869.876880 622.093169 617.973363
-870.687134 621.133657 616.416821
-871.497389 620.174144 614.860279
-872.307644 619.214632 613.303736
-873.117899 618.255120 611.747194
-873.928154 617.295608 610.190652
-874.738408 616.336095 608.634110
-875.548663 615.376583 607.077568
-876.358918 614.417071 605.521026
-877.169173 613.457558 603.964484
-877.979428 612.498046 602.407942
-878.789682 611.538534 600.851399
-879.599937 610.579022 599.294857
-880.410192 609.619509 597.738315
-881.220447 608.659997 596.181773
-882.030702 607.700485 594.625231
-882.840956 606.740973 593.068689
-883.651211 605.781460 591.512147
-884.461466 604.821948 589.955605
-885.271721 603.862436 588.399063
-886.081976 602.902924 586.842520
-886.892230 601.943411 585.285978
-887.702485 600.983899 583.729436
-888.512740 600.024387 582.172894
-889.322995 599.064874 580.616352
-890.133250 598.105362 579.059810
-890.943504 597.145850 577.503268
-891.753759 596.186338 575.946726
-892.564014 595.226825 574.390183
-893.374269 594.267313 572.833641
-894.184524 593.307801 571.277099
-894.994779 592.348289 569.720557
-895.805033 591.388776 568.164015
-896.615288 590.429264 566.607473
-897.425543 589.469752 565.050931
-898.235798 588.510240 563.494389
-899.046053 587.550727 561.937846
-899.856307 586.591215 560.381304
-900.666562 585.631703 558.824762
-901.476817 584.672190 557.268220
-902.287072 583.712678 555.711678
-903.097327 582.753166 554.155136
-903.907581 581.793654 552.598594
-904.717836 580.834141 551.042052
-905.528091 579.874629 549.485510
-906.338346 578.915117 547.928967
-907.148601 577.955605 546.372425
-907.958855 576.996092 544.815883
-908.769110 576.036580 543.259341
-909.579365 575.077068 541.702799
-910.389620 574.117556 540.146257
-911.199875 573.158043 538.589715
-912.010129 572.198531 537.033173
-912.820384 571.239019 535.476630
-913.630639 570.279507 533.920088
-914.440894 569.319994 532.363546
-915.251149 568.360482 530.807004
-916.061403 567.400970 529.250462
-916.871658 566.441457 527.693920
-917.681913 565.481945 526.137378
-918.492168 564.522433 524.580836
-919.302423 563.562921 523.024294
-920.112677 562.603408 521.467751
-920.922932 561.643896 519.911209
-921.733187 560.684384 518.354667
-922.543442 559.724872 516.798125
-923.353697 558.765359 515.241583
-924.163951 557.805847 513.685041
-924.974206 556.846335 512.128499
-925.784461 555.886823 510.571957
-926.594716 554.927310 509.015414
-927.404971 553.967798 507.458872
-928.215225 553.008286 505.902330
-929.025480 552.048773 504.345788
-929.835735 551.089261 502.789246
-930.645990 550.129749 501.232704
-931.456245 549.170237 499.676162
-932.266499 548.210724 498.119620
-933.076754 547.251212 496.563077
-933.887009 546.291700 495.006535
-934.697264 545.332188 493.449993
-935.507519 544.372675 491.893451
-936.317773 543.413163 490.336909
-937.128028 542.453651 488.780367
-937.938283 541.494139 487.223825
-938.748538 540.534626 485.667283
-939.558793 539.575114 484.110741
-940.369047 538.615602 482.554198
-941.179302 537.656089 480.997656
-941.989557 536.696577 479.441114
-942.799812 535.737065 477.884572
-943.610067 534.777553 476.328030
-944.420321 533.818040 474.771488
-945.230576 532.858528 473.214946
-946.040831 531.899016 471.658404
-946.851086 530.939504 470.101861
-947.661341 529.979991 468.545319
-948.471595 529.020479 466.988777
-949.281850 528.060967 465.432235
-950.092105 527.101455 463.875693
-950.902360 526.141942 462.319151
-951.712615 525.182430 460.762609
-952.522869 524.222918 459.206067
-953.333124 523.263406 457.649524
-954.143379 522.303893 456.092982
-954.953634 521.344381 454.536440
-955.763889 520.384869 452.979898
-956.574143 519.425356 451.423356
-957.384398 518.465844 449.866814
-958.194653 517.506332 448.310272
-959.004908 516.546820 446.753730
-959.815163 515.587307 445.197188
-960.625417 514.627795 443.640645
-961.435672 513.668283 442.084103
-962.245927 512.708771 440.527561
-963.056182 511.749258 438.971019
-963.866437 510.789746 437.414477
-964.676691 509.830234 435.857935
-965.486946 508.870722 434.301393
-966.297201 507.911209 432.744851
-967.107456 506.951697 431.188308
-967.917711 505.992185 429.631766
-968.727965 505.032672 428.075224
-969.538220 504.073160 426.518682
-970.348475 503.113648 424.962140
-971.158730 502.154136 423.405598
-971.968985 501.194623 421.849056
-972.779239 500.235111 420.292514
-973.589494 499.275599 418.735972
-974.399749 498.316087 417.179429
-975.210004 497.356574 415.622887
-976.020259 496.397062 414.066345
-976.830513 495.437550 412.509803
-977.640768 494.478038 410.953261
-978.451023 493.518525 409.396719
-979.261278 492.559013 407.840177
-980.071533 491.599501 406.283635
-980.881787 490.639988 404.727092
-981.692042 489.680476 403.170550
-982.502297 488.720964 401.614008
-983.312552 487.761452 400.057466
-984.122807 486.801939 398.500924
-984.933062 485.842427 396.944382
-985.743316 484.882915 395.387840
-986.553571 483.923403 393.831298
-987.363826 482.963890 392.274755
-988.174081 482.004378 390.718213
-988.984336 481.044866 389.161671
-989.794590 480.085354 387.605129
-990.604845 479.125841 386.048587
-991.415100 478.166329 384.492045
-992.225355 477.206817 382.935503
-993.035610 476.247305 381.378961
-993.845864 475.287792 379.822419
-994.656119 474.328280 378.265876
-995.466374 473.368768 376.709334
-996.276629 472.409255 375.152792
-997.086884 471.449743 373.596250
-997.897138 470.490231 372.039708
-998.707393 469.530719 370.483166
-1000.000000 468.000000 368.000000
-1000.943754 468.000000 366.236671
-1001.887507 468.000000 364.473342
-1002.831261 468.000000 362.710013
-1003.775014 468.000000 360.946684
-1004.718768 468.000000 359.183355
-1005.662521 468.000000 357.420026
-1006.606275 468.000000 355.656697
-1007.550028 468.000000 353.893368
-1008.493782 468.000000 352.130039
-1009.437536 468.000000 350.366710
-1010.381289 468.000000 348.603381
-1011.325043 468.000000 346.840052
-1012.268796 468.000000 345.076723
-1013.212550 468.000000 343.313394
-1014.156303 468.000000 341.550065
-1015.100057 468.000000 339.786736
-1016.043810 468.000000 338.023407
-1016.987564 468.000000 336.260078
-1017.931318 468.000000 334.496749
-1018.875071 468.000000 332.733420
-1019.818825 468.000000 330.970091
-1020.762578 468.000000 329.206762
-1021.706332 468.000000 327.443433
-1022.650085 468.000000 325.680104
-1023.593839 468.000000 323.916775
-1024.537593 468.000000 322.153446
-1025.481346 468.000000 320.390117
-1026.425100 468.000000 318.626788
-1027.368853 468.000000 316.863459
-1028.312607 468.000000 315.100129
-1029.256360 468.000000 313.336800
-1030.200114 468.000000 311.573471
-1031.143867 468.000000 309.810142
-1032.087621 468.000000 308.046813
-1033.031375 468.000000 306.283484
-1033.975128 468.000000 304.520155
-1034.918882 468.000000 302.756826
-1035.862635 468.000000 300.993497
-1036.806389 468.000000 299.230168
-1037.750142 468.000000 297.466839
-1038.693896 468.000000 295.703510
-1039.637649 468.000000 293.940181
-1040.581403 468.000000 292.176852
-1041.525157 468.000000 290.413523
-1042.468910 468.000000 288.650194
-1043.412664 468.000000 286.886865
-1044.356417 468.000000 285.123536
-1045.300171 468.000000 283.360207
-1046.243924 468.000000 281.596878
-1047.187678 468.000000 279.833549
-1048.131431 468.000000 278.070220
-1049.075185 468.000000 276.306891
-1050.018939 468.000000 274.543562
-1050.962692 468.000000 272.780233
-1051.906446 468.000000 271.016904
-1052.850199 468.000000 269.253575
-1053.793953 468.000000 267.490246
-1054.737706 468.000000 265.726917
-1055.681460 468.000000 263.963588
-1056.625213 468.000000 262.200259
-1057.568967 468.000000 260.436930
-1058.512721 468.000000 258.673601
-1059.456474 468.000000 256.910272
-1060.400228 468.000000 255.146943
-1061.343981 468.000000 253.383614
-1062.287735 468.000000 251.620285
-1063.231488 468.000000 249.856956
-1064.175242 468.000000 248.093627
-1065.118996 468.000000 246.330298
-1066.062749 468.000000 244.566969
-1067.006503 468.000000 242.803640
-1067.950256 468.000000 241.040311
-1068.894010 468.000000 239.276982
-1069.837763 468.000000 237.513653
-1070.781517 468.000000 235.750324
-1071.725270 468.000000 233.986995
-1072.669024 468.000000 232.223666
-1073.612778 468.000000 230.460337
-1074.556531 468.000000 228.697008
-1075.500285 468.000000 226.933679
-1076.444038 468.000000 225.170350
-1077.387792 468.000000 223.407021
-1078.331545 468.000000 221.643692
-1079.275299 468.000000 219.880363
-1080.219052 468.000000 218.117034
-1081.162806 468.000000 216.353705
-1082.106560 468.000000 214.590376
-1083.050313 468.000000 212.827047
-1083.994067 468.000000 211.063718
-1084.937820 468.000000 209.300388
-1085.881574 468.000000 207.537059
-1086.825327 468.000000 205.773730
-1087.769081 468.000000 204.010401
-1088.712834 468.000000 202.247072
-1089.656588 468.000000 200.483743
-1090.600342 468.000000 198.720414
-1091.544095 468.000000 196.957085
-1092.487849 468.000000 195.193756
-1093.431602 468.000000 193.430427
-1094.375356 468.000000 191.667098
-1095.319109 468.000000 189.903769
-1096.262863 468.000000 188.140440
-1097.206617 468.000000 186.377111
-1098.150370 468.000000 184.613782
-1099.094124 468.000000 182.850453
-1100.037877 468.000000 181.087124
-1100.981631 468.000000 179.323795
-1101.925384 468.000000 177.560466
-1102.869138 468.000000 175.797137
-1103.812891 468.000000 174.033808
-1104.756645 468.000000 172.270479
-1105.700399 468.000000 170.507150
-1106.644152 468.000000 168.743821
-1107.587906 468.000000 166.980492
-1108.531659 468.000000 165.217163
-1109.475413 468.000000 163.453834
-1110.419166 468.000000 161.690505
-1111.362920 468.000000 159.927176
-1112.306673 468.000000 158.163847
-1113.250427 468.000000 156.400518
-1114.194181 468.000000 154.637189
-1115.137934 468.000000 152.873860
-1116.081688 468.000000 151.110531
-1117.025441 468.000000 149.347202
-1117.969195 468.000000 147.583873
-1118.912948 468.000000 145.820544
-1119.856702 468.000000 144.057215
-1120.800455 468.000000 142.293886
-1121.744209 468.000000 140.530557
-1122.687963 468.000000 138.767228
-1123.631716 468.000000 137.003899
-1124.575470 468.000000 135.240570
-1125.519223 468.000000 133.477241
-1126.462977 468.000000 131.713912
-1127.406730 468.000000 129.950583
-1128.350484 468.000000 128.187254
-1129.294237 468.000000 126.423925
-1130.237991 468.000000 124.660596
-1131.181745 468.000000 122.897267
-1132.125498 468.000000 121.133938
-1133.069252 468.000000 119.370609
-1134.013005 468.000000 117.607280
-1134.956759 468.000000 115.843951
-1135.900512 468.000000 114.080622
-1136.844266 468.000000 112.317293
-1137.788020 468.000000 110.553964
-1138.731773 468.000000 108.790635
-1139.675527 468.000000 107.027306
-1140.619280 468.000000 105.263977
-1141.563034 468.000000 103.500647
-1142.506787 468.000000 101.737318
-1143.450541 468.000000 99.973989
-1144.394294 468.000000 98.210660
-1145.338048 468.000000 96.447331
-1146.281802 468.000000 94.684002
-1147.225555 468.000000 92.920673
-1148.169309 468.000000 91.157344
-1149.113062 468.000000 89.394015
-1150.056816 468.000000 87.630686
-1151.000569 468.000000 85.867357
-1152.000000 468.000000 84.000000
-1153.141806 466.358654 83.952425
-1154.283612 464.717308 83.904850
-1155.425417 463.075963 83.857274
-1156.567223 461.434617 83.809699
-1157.709029 459.793271 83.762124
-1158.850835 458.151925 83.714549
-1159.992641 456.510579 83.666973
-1161.134446 454.869233 83.619398
-1162.276252 453.227888 83.571823
-1163.418058 451.586542 83.524248
-1164.559864 449.945196 83.476672
-1165.701670 448.303850 83.429097
-1166.843475 446.662504 83.381522
-1167.985281 445.021158 83.333947
-1169.127087 443.379813 83.286371
-1170.268893 441.738467 83.238796
-1171.410698 440.097121 83.191221
-1172.552504 438.455775 83.143646
-1173.694310 436.814429 83.096070
-1174.836116 435.173083 83.048495
-1175.977922 433.531738 83.000920
-1177.119727 431.890392 82.953345
-1178.261533 430.249046 82.905769
-1179.403339 428.607700 82.858194
-1180.545145 426.966354 82.810619
-1181.686951 425.325008 82.763044
-1182.828756 423.683663 82.715468
-1183.970562 422.042317 82.667893
-1185.112368 420.400971 82.620318
-1186.254174 418.759625 82.572743
-1187.395980 417.118279 82.525168
-1188.537785 415.476934 82.477592
-1189.679591 413.835588 82.430017
-1190.821397 412.194242 82.382442
-1191.963203 410.552896 82.334867
-1193.105009 408.911550 82.287291
-1194.246814 407.270204 82.239716
-1195.388620 405.628859 82.192141
-1196.530426 403.987513 82.144566
-1197.672232 402.346167 82.096990
-1198.814038 400.704821 82.049415
-1199.955843 399.063475 82.001840
-1201.097649 397.422129 81.954265
-1202.239455 395.780784 81.906689
-1203.381261 394.139438 81.859114
-1204.523066 392.498092 81.811539
-1205.664872 390.856746 81.763964
-1206.806678 389.215400 81.716388
-1207.948484 387.574054 81.668813
-1209.090290 385.932709 81.621238
-1210.232095 384.291363 81.573663
-1211.373901 382.650017 81.526087
-1212.515707 381.008671 81.478512
-1213.657513 379.367325 81.430937
-1214.799319 377.725979 81.383362
-1215.941124 376.084634 81.335786
-1217.082930 374.443288 81.288211
-1218.224736 372.801942 81.240636
-1219.366542 371.160596 81.193061
-1220.508348 369.519250 81.145486
-1221.650153 367.877904 81.097910
-1222.791959 366.236559 81.050335
-1223.933765 364.595213 81.002760
-1225.075571 362.953867 80.955185
-1226.217377 361.312521 80.907609
-1227.359182 359.671175 80.860034
-1228.500988 358.029830 80.812459
-1229.642794 356.388484 80.764884
-1230.784600 354.747138 80.717308
-1231.926406 353.105792 80.669733
-1233.068211 351.464446 80.622158
-1234.210017 349.823100 80.574583
-1235.351823 348.181755 80.527007
-1236.493629 346.540409 80.479432
-1237.635434 344.899063 80.431857
-1238.777240 343.257717 80.384282
-1239.919046 341.616371 80.336706
-1241.060852 339.975025 80.289131
-1242.202658 338.333680 80.241556
-1243.344463 336.692334 80.193981
-1244.486269 335.050988 80.146405
-1245.628075 333.409642 80.098830
-1246.769881 331.768296 80.051255
-1247.911687 330.126950 80.003680
-1249.053492 328.485605 79.956104
-1250.195298 326.844259 79.908529
-1251.337104 325.202913 79.860954
-1252.478910 323.561567 79.813379
-1253.620716 321.920221 79.765804
-1254.762521 320.278875 79.718228
-1255.904327 318.637530 79.670653
-1257.046133 316.996184 79.623078
-1258.187939 315.354838 79.575503
-1259.329745 313.713492 79.527927
-1260.471550 312.072146 79.480352
-1261.613356 310.430801 79.432777
-1262.755162 308.789455 79.385202
-1263.896968 307.148109 79.337626
-1265.038774 305.506763 79.290051
-1266.180579 303.865417 79.242476
-1267.322385 302.224071 79.194901
-1268.464191 300.582726 79.147325
-1269.605997 298.941380 79.099750
-1270.747803 297.300034 79.052175
-1271.889608 295.658688 79.004600
-1273.031414 294.017342 78.957024
-1274.173220 292.375996 78.909449
-1275.315026 290.734651 78.861874
-1276.456831 289.093305 78.814299
-1277.598637 287.451959 78.766723
-1278.740443 285.810613 78.719148
-1279.882249 284.169267 78.671573
-1281.024055 282.527921 78.623998
-1282.165860 280.886576 78.576422
-1283.307666 279.245230 78.528847
-1284.449472 277.603884 78.481272
-1285.591278 275.962538 78.433697
-1286.733084 274.321192 78.386122
-1287.874889 272.679846 78.338546
-1289.016695 271.038501 78.290971
-1290.158501 269.397155 78.243396
-1291.300307 267.755809 78.195821
-1292.442113 266.114463 78.148245
-1293.583918 264.473117 78.100670
-1294.725724 262.831772 78.053095
-1295.867530 261.190426 78.005520
-1297.009336 259.549080 77.957944
-1298.151142 257.907734 77.910369
-1299.292947 256.266388 77.862794
-1300.434753 254.625042 77.815219
-1301.576559 252.983697 77.767643
-1302.718365 251.342351 77.720068
-1303.860171 249.701005 77.672493
-1305.001976 248.059659 77.624918
-1306.143782 246.418313 77.577342
-1307.285588 244.776967 77.529767
-1308.427394 243.135622 77.482192
-1309.569199 241.494276 77.434617
-1310.711005 239.852930 77.387041
-1311.852811 238.211584 77.339466
-1312.994617 236.570238 77.291891
-1314.136423 234.928892 77.244316
-1315.278228 233.287547 77.196740
-1316.420034 231.646201 77.149165
-1317.561840 230.004855 77.101590
-1318.703646 228.363509 77.054015
-1319.845452 226.722163 77.006440
-1320.987257 225.080817 76.958864
-1322.129063 223.439472 76.911289
-1323.270869 221.798126 76.863714
-1324.412675 220.156780 76.816139
-1325.554481 218.515434 76.768563
-1326.696286 216.874088 76.720988
-1327.838092 215.232743 76.673413
-1328.979898 213.591397 76.625838
-1330.121704 211.950051 76.578262
-1331.263510 210.308705 76.530687
-1332.405315 208.667359 76.483112
-1333.547121 207.026013 76.435537
-1334.688927 205.384668 76.387961
-1335.830733 203.743322 76.340386
-1336.972539 202.101976 76.292811
-1338.114344 200.460630 76.245236
-1339.256150 198.819284 76.197660
-1340.397956 197.177938 76.150085
-1341.539762 195.536593 76.102510
-1342.681567 193.895247 76.054935
-1344.000000 192.000000 76.000000
-1343.751931 190.015444 76.000000
-1343.503861 188.030888 76.000000
-1343.255792 186.046333 76.000000
-1343.007722 184.061777 76.000000
-1342.759653 182.077221 76.000000
-1342.511583 180.092665 76.000000
-1342.263514 178.108110 76.000000
-1342.015444 176.123554 76.000000
-1341.767375 174.138998 76.000000
-1341.519305 172.154442 76.000000
-1341.271236 170.169887 76.000000
-1341.023166 168.185331 76.000000
-1340.775097 166.200775 76.000000
-1340.527027 164.216219 76.000000
-1340.278958 162.231664 76.000000
-1340.030888 160.247108 76.000000
-1339.782819 158.262552 76.000000
-1339.534750 156.277996 76.000000
-1339.286680 154.293441 76.000000
-1339.038611 152.308885 76.000000
-1338.790541 150.324329 76.000000
-1338.542472 148.339773 76.000000
-1338.294402 146.355218 76.000000
-1338.046333 144.370662 76.000000
-1337.798263 142.386106 76.000000
-1337.550194 140.401550 76.000000
-1337.302124 138.416995 76.000000
-1337.054055 136.432439 76.000000
-1336.805985 134.447883 76.000000
-1336.557916 132.463327 76.000000
-1336.309846 130.478772 76.000000
-1336.061777 128.494216 76.000000
-1335.813708 126.509660 76.000000
-1335.565638 124.525104 76.000000
-1335.317569 122.540549 76.000000
-1335.069499 120.555993 76.000000
-1334.821430 118.571437 76.000000
-1334.573360 116.586881 76.000000
-1334.325291 114.602326 76.000000
-1334.077221 112.617770 76.000000
-1333.829152 110.633214 76.000000
-1333.581082 108.648658 76.000000
-1333.333013 106.664103 76.000000
-1333.084943 104.679547 76.000000
-1332.836874 102.694991 76.000000
-1332.588804 100.710435 76.000000
-1332.340735 98.725880 76.000000
-1332.092665 96.741324 76.000000
-1331.844596 94.756768 76.000000
-1331.596527 92.772212 76.000000
-1331.348457 90.787657 76.000000
-1331.100388 88.803101 76.000000
-1330.852318 86.818545 76.000000
-1330.604249 84.833989 76.000000
-1330.356179 82.849434 76.000000
-1330.108110 80.864878 76.000000
-1329.860040 78.880322 76.000000
-1329.611971 76.895766 76.000000
-1329.363901 74.911211 76.000000
-1329.115832 72.926655 76.000000
-1328.867762 70.942099 76.000000
-1328.619693 68.957543 76.000000
-1328.371623 66.972988 76.000000
-1328.000000 64.000000 76.000000
-1329.351449 62.525692 76.000000
-1330.702899 61.051383 76.000000
-1332.054348 59.577075 76.000000
-1333.405797 58.102767 76.000000
-1334.757246 56.628459 76.000000
-1336.108696 55.154150 76.000000
-1337.460145 53.679842 76.000000
-1338.811594 52.205534 76.000000
-1340.163043 50.731225 76.000000
-1341.514493 49.256917 76.000000
-1342.865942 47.782609 76.000000
-1344.217391 46.308301 76.000000
-1345.568840 44.833992 76.000000
-1346.920290 43.359684 76.000000
-1348.271739 41.885376 76.000000
-1349.623188 40.411068 76.000000
-1350.974637 38.936759 76.000000
-1352.326087 37.462451 76.000000
-1353.677536 35.988143 76.000000
-1355.028985 34.513834 76.000000
-1356.380434 33.039526 76.000000
-1357.731884 31.565218 76.000000
-1359.083333 30.090910 76.000000
-1360.434782 28.616601 76.000000
-1361.786231 27.142293 76.000000
-1363.137681 25.667985 76.000000
-1364.489130 24.193676 76.000000
-1365.840579 22.719368 76.000000
-1367.192028 21.245060 76.000000
-1368.543478 19.770752 76.000000
-1369.894927 18.296443 76.000000
-1371.246376 16.822135 76.000000
-1372.597825 15.347827 76.000000
-1373.949275 13.873518 76.000000
-1375.300724 12.399210 76.000000
-1376.652173 10.924902 76.000000
-1378.003623 9.450594 76.000000
-1379.355072 7.976285 76.000000
-1380.706521 6.501977 76.000000
-1382.057970 5.027669 76.000000
-1383.409420 3.553361 76.000000
-1384.760869 2.079052 76.000000
-1386.112318 0.604744 76.000000
-1387.463767 -0.869564 76.000000
-1388.815217 -2.343873 76.000000
-1390.166666 -3.818181 76.000000
-1391.518115 -5.292489 76.000000
-1392.869564 -6.766797 76.000000
-1394.221014 -8.241106 76.000000
-1395.572463 -9.715414 76.000000
-1396.923912 -11.189722 76.000000
-1398.275361 -12.664031 76.000000
-1399.626811 -14.138339 76.000000
-1400.978260 -15.612647 76.000000
-1402.329709 -17.086955 76.000000
-1403.681158 -18.561264 76.000000
-1405.032608 -20.035572 76.000000
-1406.384057 -21.509880 76.000000
-1407.735506 -22.984189 76.000000
-1409.086955 -24.458497 76.000000
-1410.438405 -25.932805 76.000000
-1411.789854 -27.407113 76.000000
-1413.141303 -28.881422 76.000000
-1414.492752 -30.355730 76.000000
-1415.844202 -31.830038 76.000000
-1417.195651 -33.304347 76.000000
-1418.547100 -34.778655 76.000000
-1419.898549 -36.252963 76.000000
-1421.249999 -37.727271 76.000000
-1422.601448 -39.201580 76.000000
-1423.952897 -40.675888 76.000000
-1425.304347 -42.150196 76.000000
-1426.655796 -43.624504 76.000000
-1428.007245 -45.098813 76.000000
-1429.358694 -46.573121 76.000000
-1430.710144 -48.047429 76.000000
-1432.061593 -49.521738 76.000000
-1433.413042 -50.996046 76.000000
-1434.764491 -52.470354 76.000000
-1436.115941 -53.944662 76.000000
-1437.467390 -55.418971 76.000000
-1438.818839 -56.893279 76.000000
-1440.170288 -58.367587 76.000000
-1441.521738 -59.841896 76.000000
-1442.873187 -61.316204 76.000000
-1444.224636 -62.790512 76.000000
-1445.576085 -64.264820 76.000000
-1446.927535 -65.739129 76.000000
-1448.278984 -67.213437 76.000000
-1449.630433 -68.687745 76.000000
-1450.981882 -70.162054 76.000000
-1452.333332 -71.636362 76.000000
-1453.684781 -73.110670 76.000000
-1455.036230 -74.584978 76.000000
-1456.387679 -76.059287 76.000000
-1457.739129 -77.533595 76.000000
-1459.090578 -79.007903 76.000000
-1460.442027 -80.482211 76.000000
-1461.793476 -81.956520 76.000000
-1463.144926 -83.430828 76.000000
-1464.496375 -84.905136 76.000000
-1465.847824 -86.379445 76.000000
-1467.199273 -87.853753 76.000000
-1468.550723 -89.328061 76.000000
-1469.902172 -90.802369 76.000000
-1471.253621 -92.276678 76.000000
-1472.605071 -93.750986 76.000000
-1473.956520 -95.225294 76.000000
-1475.307969 -96.699603 76.000000
-1476.659418 -98.173911 76.000000
-1478.010868 -99.648219 76.000000
-1479.362317 -101.122527 76.000000
-1480.713766 -102.596836 76.000000
-1482.065215 -104.071144 76.000000
-1483.416665 -105.545452 76.000000
-1484.768114 -107.019761 76.000000
-1486.119563 -108.494069 76.000000
-1487.471012 -109.968377 76.000000
-1488.822462 -111.442685 76.000000
-1490.173911 -112.916994 76.000000
-1491.525360 -114.391302 76.000000
-1492.876809 -115.865610 76.000000
-1494.228259 -117.339918 76.000000
-1495.579708 -118.814227 76.000000
-1496.931157 -120.288535 76.000000
-1498.282606 -121.762843 76.000000
-1499.634056 -123.237152 76.000000
-1500.985505 -124.711460 76.000000
-1502.336954 -126.185768 76.000000
=======
-560.000000 -48.000000 -312.000000
-559.458519 -48.108296 -310.077743
-558.917039 -48.216592 -308.155487
-558.375558 -48.324888 -306.233230
-557.834077 -48.433185 -304.310973
-557.292596 -48.541481 -302.388717
-556.751116 -48.649777 -300.466460
-556.209635 -48.758073 -298.544204
-555.668154 -48.866369 -296.621947
-555.126673 -48.974665 -294.699690
-554.585193 -49.082961 -292.777434
-554.043712 -49.191258 -290.855177
-553.502231 -49.299554 -288.932920
-552.960750 -49.407850 -287.010664
-552.419270 -49.516146 -285.088407
-551.877789 -49.624442 -283.166151
-551.336308 -49.732738 -281.243894
-550.794827 -49.841035 -279.321637
-550.253347 -49.949331 -277.399381
-549.711866 -50.057627 -275.477124
-549.170385 -50.165923 -273.554867
-548.628904 -50.274219 -271.632611
-548.087424 -50.382515 -269.710354
-547.545943 -50.490811 -267.788098
-547.004462 -50.599108 -265.865841
-546.462981 -50.707404 -263.943584
-545.921501 -50.815700 -262.021328
-545.380020 -50.923996 -260.099071
-544.838539 -51.032292 -258.176814
-544.297059 -51.140588 -256.254558
-543.755578 -51.248884 -254.332301
-543.214097 -51.357181 -252.410044
-542.672616 -51.465477 -250.487788
-542.131136 -51.573773 -248.565531
-541.589655 -51.682069 -246.643275
-541.048174 -51.790365 -244.721018
-540.506693 -51.898661 -242.798761
-539.965213 -52.006957 -240.876505
-539.423732 -52.115254 -238.954248
-538.882251 -52.223550 -237.031991
-538.340770 -52.331846 -235.109735
-537.799290 -52.440142 -233.187478
-537.257809 -52.548438 -231.265222
-536.716328 -52.656734 -229.342965
-536.174847 -52.765031 -227.420708
-535.633367 -52.873327 -225.498452
-535.091886 -52.981623 -223.576195
-534.550405 -53.089919 -221.653938
-534.008924 -53.198215 -219.731682
-533.467444 -53.306511 -217.809425
-532.925963 -53.414807 -215.887168
-532.384482 -53.523104 -213.964912
-531.843001 -53.631400 -212.042655
-531.301521 -53.739696 -210.120399
-530.760040 -53.847992 -208.198142
-530.218559 -53.956288 -206.275885
-529.677079 -54.064584 -204.353629
-529.135598 -54.172880 -202.431372
-528.594117 -54.281177 -200.509115
-528.052636 -54.389473 -198.586859
-527.511156 -54.497769 -196.664602
-526.969675 -54.606065 -194.742346
-526.428194 -54.714361 -192.820089
-525.886713 -54.822657 -190.897832
-525.345233 -54.930953 -188.975576
-524.803752 -55.039250 -187.053319
-524.262271 -55.147546 -185.131062
-523.720790 -55.255842 -183.208806
-523.179310 -55.364138 -181.286549
-522.637829 -55.472434 -179.364293
-522.096348 -55.580730 -177.442036
-521.554867 -55.689027 -175.519779
-521.013387 -55.797323 -173.597523
-520.471906 -55.905619 -171.675266
-519.930425 -56.013915 -169.753009
-519.388944 -56.122211 -167.830753
-518.847464 -56.230507 -165.908496
-518.305983 -56.338803 -163.986239
-517.764502 -56.447100 -162.063983
-517.223021 -56.555396 -160.141726
-516.681541 -56.663692 -158.219470
-516.140060 -56.771988 -156.297213
-515.598579 -56.880284 -154.374956
-515.057099 -56.988580 -152.452700
-514.515618 -57.096876 -150.530443
-513.974137 -57.205173 -148.608186
-513.432656 -57.313469 -146.685930
-512.891176 -57.421765 -144.763673
-512.349695 -57.530061 -142.841417
-511.808214 -57.638357 -140.919160
-511.266733 -57.746653 -138.996903
-510.725253 -57.854949 -137.074647
-510.183772 -57.963246 -135.152390
-509.642291 -58.071542 -133.230133
-509.100810 -58.179838 -131.307877
-508.559330 -58.288134 -129.385620
-508.017849 -58.396430 -127.463364
-507.476368 -58.504726 -125.541107
-506.934887 -58.613023 -123.618850
-506.393407 -58.721319 -121.696594
-505.851926 -58.829615 -119.774337
-505.310445 -58.937911 -117.852080
-504.768964 -59.046207 -115.929824
-504.227484 -59.154503 -114.007567
-503.686003 -59.262799 -112.085310
-503.144522 -59.371096 -110.163054
-502.603041 -59.479392 -108.240797
-502.061561 -59.587688 -106.318541
-501.520080 -59.695984 -104.396284
-500.978599 -59.804280 -102.474027
-500.437119 -59.912576 -100.551771
-499.895638 -60.020872 -98.629514
-499.354157 -60.129169 -96.707257
-498.812676 -60.237465 -94.785001
-498.271196 -60.345761 -92.862744
-497.729715 -60.454057 -90.940488
-497.188234 -60.562353 -89.018231
-496.646753 -60.670649 -87.095974
-496.105273 -60.778945 -85.173718
-495.563792 -60.887242 -83.251461
-495.022311 -60.995538 -81.329204
-494.480830 -61.103834 -79.406948
-493.939350 -61.212130 -77.484691
-493.397869 -61.320426 -75.562435
-492.856388 -61.428722 -73.640178
-492.314907 -61.537019 -71.717921
-491.773427 -61.645315 -69.795665
-491.231946 -61.753611 -67.873408
-490.690465 -61.861907 -65.951151
-490.148984 -61.970203 -64.028895
-489.607504 -62.078499 -62.106638
-489.066023 -62.186795 -60.184381
-488.524542 -62.295092 -58.262125
-487.983061 -62.403388 -56.339868
-487.441581 -62.511684 -54.417612
-486.900100 -62.619980 -52.495355
-486.358619 -62.728276 -50.573098
-485.817139 -62.836572 -48.650842
-485.275658 -62.944868 -46.728585
-484.734177 -63.053165 -44.806328
-484.192696 -63.161461 -42.884072
-483.651216 -63.269757 -40.961815
-483.109735 -63.378053 -39.039559
-482.568254 -63.486349 -37.117302
-482.026773 -63.594645 -35.195045
-481.485293 -63.702941 -33.272789
-480.943812 -63.811238 -31.350532
-480.000000 -64.000000 -28.000000
-480.660701 -65.887717 -28.000000
-481.321402 -67.775433 -28.000000
-481.982103 -69.663150 -28.000000
-482.642803 -71.550867 -28.000000
-483.303504 -73.438584 -28.000000
-483.964205 -75.326300 -28.000000
-484.624906 -77.214017 -28.000000
-485.285607 -79.101734 -28.000000
-485.946308 -80.989450 -28.000000
-486.607008 -82.877167 -28.000000
-487.267709 -84.764884 -28.000000
-487.928410 -86.652601 -28.000000
-488.589111 -88.540317 -28.000000
-489.249812 -90.428034 -28.000000
-489.910513 -92.315751 -28.000000
-490.571214 -94.203467 -28.000000
-491.231914 -96.091184 -28.000000
-491.892615 -97.978901 -28.000000
-492.553316 -99.866618 -28.000000
-493.214017 -101.754334 -28.000000
-493.874718 -103.642051 -28.000000
-494.535419 -105.529768 -28.000000
-495.196120 -107.417484 -28.000000
-495.856820 -109.305201 -28.000000
-496.517521 -111.192918 -28.000000
-497.178222 -113.080635 -28.000000
-497.838923 -114.968351 -28.000000
-498.499624 -116.856068 -28.000000
-499.160325 -118.743785 -28.000000
-499.821025 -120.631501 -28.000000
-500.481726 -122.519218 -28.000000
-501.142427 -124.406935 -28.000000
-501.803128 -126.294652 -28.000000
-502.463829 -128.182368 -28.000000
-503.124530 -130.070085 -28.000000
-503.785231 -131.957802 -28.000000
-504.445931 -133.845518 -28.000000
-505.106632 -135.733235 -28.000000
-505.767333 -137.620952 -28.000000
-506.428034 -139.508669 -28.000000
-507.088735 -141.396385 -28.000000
-507.749436 -143.284102 -28.000000
-508.410137 -145.171819 -28.000000
-509.070837 -147.059535 -28.000000
-509.731538 -148.947252 -28.000000
-510.392239 -150.834969 -28.000000
-511.052940 -152.722685 -28.000000
-511.713641 -154.610402 -28.000000
-512.374342 -156.498119 -28.000000
-513.035042 -158.385836 -28.000000
-513.695743 -160.273552 -28.000000
-514.356444 -162.161269 -28.000000
-515.017145 -164.048986 -28.000000
-515.677846 -165.936702 -28.000000
-516.338547 -167.824419 -28.000000
-516.999248 -169.712136 -28.000000
-517.659948 -171.599853 -28.000000
-518.320649 -173.487569 -28.000000
-518.981350 -175.375286 -28.000000
-519.642051 -177.263003 -28.000000
-520.302752 -179.150719 -28.000000
-520.963453 -181.038436 -28.000000
-521.624154 -182.926153 -28.000000
-522.284854 -184.813870 -28.000000
-522.945555 -186.701586 -28.000000
-523.606256 -188.589303 -28.000000
-524.266957 -190.477020 -28.000000
-524.927658 -192.364736 -28.000000
-525.588359 -194.252453 -28.000000
-526.249059 -196.140170 -28.000000
-526.909760 -198.027887 -28.000000
-527.570461 -199.915603 -28.000000
-528.231162 -201.803320 -28.000000
-528.891863 -203.691037 -28.000000
-529.552564 -205.578753 -28.000000
-530.213265 -207.466470 -28.000000
-530.873965 -209.354187 -28.000000
-531.534666 -211.241904 -28.000000
-532.195367 -213.129620 -28.000000
-532.856068 -215.017337 -28.000000
-533.516769 -216.905054 -28.000000
-534.177470 -218.792770 -28.000000
-534.838171 -220.680487 -28.000000
-535.498871 -222.568204 -28.000000
-536.159572 -224.455921 -28.000000
-536.820273 -226.343637 -28.000000
-537.480974 -228.231354 -28.000000
-538.141675 -230.119071 -28.000000
-538.802376 -232.006787 -28.000000
-539.463076 -233.894504 -28.000000
-540.123777 -235.782221 -28.000000
-540.784478 -237.669938 -28.000000
-541.445179 -239.557654 -28.000000
-542.105880 -241.445371 -28.000000
-542.766581 -243.333088 -28.000000
-543.427282 -245.220804 -28.000000
-544.087982 -247.108521 -28.000000
-544.748683 -248.996238 -28.000000
-545.409384 -250.883955 -28.000000
-546.070085 -252.771671 -28.000000
-546.730786 -254.659388 -28.000000
-547.391487 -256.547105 -28.000000
-548.052187 -258.434821 -28.000000
-548.712888 -260.322538 -28.000000
-549.373589 -262.210255 -28.000000
-550.034290 -264.097972 -28.000000
-550.694991 -265.985688 -28.000000
-551.355692 -267.873405 -28.000000
-552.016393 -269.761122 -28.000000
-552.677093 -271.648838 -28.000000
-553.337794 -273.536555 -28.000000
-553.998495 -275.424272 -28.000000
-554.659196 -277.311989 -28.000000
-555.319897 -279.199705 -28.000000
-555.980598 -281.087422 -28.000000
-556.641299 -282.975139 -28.000000
-557.301999 -284.862855 -28.000000
-557.962700 -286.750572 -28.000000
-558.623401 -288.638289 -28.000000
-559.284102 -290.526006 -28.000000
-559.944803 -292.413722 -28.000000
-560.605504 -294.301439 -28.000000
-561.266204 -296.189156 -28.000000
-561.926905 -298.076872 -28.000000
-562.587606 -299.964589 -28.000000
-563.248307 -301.852306 -28.000000
-563.909008 -303.740023 -28.000000
-564.569709 -305.627739 -28.000000
-565.230410 -307.515456 -28.000000
-565.891110 -309.403173 -28.000000
-566.551811 -311.290889 -28.000000
-567.212512 -313.178606 -28.000000
-567.873213 -315.066323 -28.000000
-568.533914 -316.954040 -28.000000
-569.194615 -318.841756 -28.000000
-569.855316 -320.729473 -28.000000
-570.516016 -322.617190 -28.000000
-571.176717 -324.504906 -28.000000
-571.837418 -326.392623 -28.000000
-572.498119 -328.280340 -28.000000
-573.158820 -330.168056 -28.000000
-573.819521 -332.055773 -28.000000
-574.480221 -333.943490 -28.000000
-575.140922 -335.831207 -28.000000
-575.801623 -337.718923 -28.000000
-576.462324 -339.606640 -28.000000
-577.123025 -341.494357 -28.000000
-577.783726 -343.382073 -28.000000
-578.444427 -345.269790 -28.000000
-579.105127 -347.157507 -28.000000
-579.765828 -349.045224 -28.000000
-580.426529 -350.932940 -28.000000
-581.087230 -352.820657 -28.000000
-581.747931 -354.708374 -28.000000
-582.408632 -356.596090 -28.000000
-583.069333 -358.483807 -28.000000
-583.730033 -360.371524 -28.000000
-584.390734 -362.259241 -28.000000
-585.051435 -364.146957 -28.000000
-585.712136 -366.034674 -28.000000
-586.372837 -367.922391 -28.000000
-587.033538 -369.810107 -28.000000
-587.694238 -371.697824 -28.000000
-588.354939 -373.585541 -28.000000
-589.015640 -375.473258 -28.000000
-589.676341 -377.360974 -28.000000
-590.337042 -379.248691 -28.000000
-590.997743 -381.136408 -28.000000
-592.000000 -384.000000 -28.000000
-593.682357 -385.081515 -28.000000
-595.364714 -386.163030 -28.000000
-597.047071 -387.244546 -28.000000
-598.729428 -388.326061 -28.000000
-600.411785 -389.407576 -28.000000
-602.094142 -390.489091 -28.000000
-603.776499 -391.570606 -28.000000
-605.458856 -392.652121 -28.000000
-607.141213 -393.733637 -28.000000
-608.823570 -394.815152 -28.000000
-610.505926 -395.896667 -28.000000
-612.188283 -396.978182 -28.000000
-613.870640 -398.059697 -28.000000
-615.552997 -399.141213 -28.000000
-617.235354 -400.222728 -28.000000
-618.917711 -401.304243 -28.000000
-620.600068 -402.385758 -28.000000
-622.282425 -403.467273 -28.000000
-623.964782 -404.548788 -28.000000
-625.647139 -405.630304 -28.000000
-627.329496 -406.711819 -28.000000
-629.011853 -407.793334 -28.000000
-630.694210 -408.874849 -28.000000
-632.376567 -409.956364 -28.000000
-634.058924 -411.037880 -28.000000
-635.741281 -412.119395 -28.000000
-637.423638 -413.200910 -28.000000
-639.105995 -414.282425 -28.000000
-640.788352 -415.363940 -28.000000
-642.470709 -416.445455 -28.000000
-644.153065 -417.526971 -28.000000
-645.835422 -418.608486 -28.000000
-647.517779 -419.690001 -28.000000
-649.200136 -420.771516 -28.000000
-650.882493 -421.853031 -28.000000
-652.564850 -422.934547 -28.000000
-654.247207 -424.016062 -28.000000
-655.929564 -425.097577 -28.000000
-657.611921 -426.179092 -28.000000
-659.294278 -427.260607 -28.000000
-660.976635 -428.342122 -28.000000
-662.658992 -429.423638 -28.000000
-664.341349 -430.505153 -28.000000
-666.023706 -431.586668 -28.000000
-667.706063 -432.668183 -28.000000
-669.388420 -433.749698 -28.000000
-671.070777 -434.831214 -28.000000
-672.753134 -435.912729 -28.000000
-674.435491 -436.994244 -28.000000
-676.117848 -438.075759 -28.000000
-677.800204 -439.157274 -28.000000
-679.482561 -440.238789 -28.000000
-681.164918 -441.320305 -28.000000
-682.847275 -442.401820 -28.000000
-684.529632 -443.483335 -28.000000
-686.211989 -444.564850 -28.000000
-687.894346 -445.646365 -28.000000
-689.576703 -446.727881 -28.000000
-691.259060 -447.809396 -28.000000
-692.941417 -448.890911 -28.000000
-694.623774 -449.972426 -28.000000
-696.306131 -451.053941 -28.000000
-697.988488 -452.135457 -28.000000
-699.670845 -453.216972 -28.000000
-701.353202 -454.298487 -28.000000
-704.000000 -456.000000 -28.000000
-705.638464 -457.146925 -28.000000
-707.276928 -458.293849 -28.000000
-708.915392 -459.440774 -28.000000
-710.553855 -460.587699 -28.000000
-712.192319 -461.734623 -28.000000
-713.830783 -462.881548 -28.000000
-715.469247 -464.028473 -28.000000
-717.107711 -465.175398 -28.000000
-718.746175 -466.322322 -28.000000
-720.384638 -467.469247 -28.000000
-722.023102 -468.616172 -28.000000
-723.661566 -469.763096 -28.000000
-725.300030 -470.910021 -28.000000
-726.938494 -472.056946 -28.000000
-728.576958 -473.203870 -28.000000
-730.215421 -474.350795 -28.000000
-731.853885 -475.497720 -28.000000
-733.492349 -476.644644 -28.000000
-735.130813 -477.791569 -28.000000
-736.769277 -478.938494 -28.000000
-738.407741 -480.085418 -28.000000
-740.046205 -481.232343 -28.000000
-741.684668 -482.379268 -28.000000
-743.323132 -483.526193 -28.000000
-744.961596 -484.673117 -28.000000
-746.600060 -485.820042 -28.000000
-748.238524 -486.966967 -28.000000
-749.876988 -488.113891 -28.000000
-751.515451 -489.260816 -28.000000
-753.153915 -490.407741 -28.000000
-754.792379 -491.554665 -28.000000
-756.430843 -492.701590 -28.000000
-758.069307 -493.848515 -28.000000
-759.707771 -494.995439 -28.000000
-761.346234 -496.142364 -28.000000
-762.984698 -497.289289 -28.000000
-764.623162 -498.436213 -28.000000
-766.261626 -499.583138 -28.000000
-767.900090 -500.730063 -28.000000
-769.538554 -501.876988 -28.000000
-771.177017 -503.023912 -28.000000
-772.815481 -504.170837 -28.000000
-774.453945 -505.317762 -28.000000
-776.092409 -506.464686 -28.000000
-777.730873 -507.611611 -28.000000
-779.369337 -508.758536 -28.000000
-781.007801 -509.905460 -28.000000
>>>>>>> Stashed changes
